25.4000949859619 25.4000949859619 25.4000949859619 31.9621963500977 13.6493349075317 14.1912927627563 14.7997674942017 16.5382251739502 16.4173030853271 16.5815315246582 17.1201496124268 18.0102977752686 18.1157684326172 19.0807685852051 19.1772384643555 18.316987991333 23.1346683502197 22.4907779693604 21.7161693572998 20.8946475982666 20.178279876709 19.6507740020752 19.6507740020752 19.5647888183594 19.5647888183594 19.6002750396729 19.5909118652344 19.59228515625 18.1382961273193 17.9155559539795 17.8587169647217 18.2922191619873 20.4409866333008 23.8124485015869 25.2216930389404 28.9636325836182 32.5378875732422 40.0273551940918 53.3473663330078 60.4749565124512 67.033561706543 67.8325576782227 72.0042724609375 75.1669387817383 75.8551330566406 73.5803756713867 69.5345993041992 66.3417892456055 59.6811561584473 53.5412712097168 53.2123680114746 52.9894676208496 52.4980773925781 52.172664642334 51.9826049804688 52.837718963623 54.0087432861328 55.9468269348145 55.5160369873047 54.085865020752 53.5802917480469 51.8570442199707 54.0312347412109 55.9590797424316 57.9231758117676 58.7170715332031 60.5164947509766 62.4671287536621 62.8050384521484 62.1309547424316 61.651798248291 63.1175727844238 65.2947769165039 66.4210662841797 68.2087097167969 71.8543319702148 75.1966781616211 78.8807983398438 81.8476486206055 85.6309432983398 87.8249740600586 89.193229675293 90.904296875 92.4603881835938 93.8008651733398 94.8024597167969 95.6350631713867 96.6754837036133 98.9690780639648 100.367576599121 101.405723571777 102.351066589355 102.73397064209 106.475372314453 107.856140136719 110.135475158691 113.998443603516 116.381652832031 118.7255859375 121.190673828125 121.193351745605 119.325721740723 111.604057312012 106.35929107666 97.3535461425781 96.1074829101563 91.351448059082 90.5422134399414 88.3952255249023 87.2313613891602 85.4945678710938 85.1664505004883 86.0954360961914 87.2560043334961 89.3746566772461 92.9538192749023 94.6225204467773 95.8464965820313 95.5879821777344 96.8607177734375 98.1803283691406 100.355400085449 100.355400085449 105.92130279541 108.944648742676 110.346138000488 111.132972717285 111.091606140137 111.091606140137 110.083312988281 110.297798156738 109.678932189941 108.70987701416 108.237525939941 108.237525939941 107.379364013672 107.578765869141 109.642204284668 111.049613952637 111.049613952637 113.802024841309 118.792869567871 120.613258361816 124.138603210449 124.138603210449 125.288299560547 124.983825683594 123.296485900879 123.296485900879 121.93871307373 122.808036804199 122.808036804199 125.924133300781 128.004623413086 130.636352539063 130.636352539063 131.330947875977 132.204223632813 132.204223632813 132.571334838867 133.6533203125 133.6533203125 135.188186645508 136.276351928711 138.194030761719 138.194030761719 138.870895385742 140.010787963867 140.010787963867 140.58561706543 140.58561706543 141.725006103516 141.725006103516 142.34733581543 143.849533081055 143.849533081055 144.758499145508 144.758499145508 146.758712768555 147.717330932617 147.717330932617 149.270523071289 149.270523071289 149.830093383789 149.830093383789 150.525817871094
12.8016996383667 12.8016996383667 12.6613349914551 12.6613349914551 13.3013715744019 14.0324401855469 14.1912927627563 14.7997674942017 16.5382251739502 16.3406162261963 16.5815315246582 17.1201496124268 18.0102977752686 18.1157684326172 19.0807685852051 19.1772384643555 18.316987991333 23.4430160522461 23.1346683502197 22.4907779693604 21.7161693572998 20.8946475982666 20.178279876709 19.6507740020752 19.5647888183594 19.5647888183594 19.6002750396729 19.5909118652344 19.59228515625 18.1382961273193 17.7095336914063 18.0330505371094 19.2255039215088 23.4550838470459 27.8207912445068 32.4890022277832 39.9253387451172 45.9333610534668 58.4826698303223 64.0715103149414 66.9270248413086 69.0303268432617 73.4455184936523 76.8927383422852 74.8492660522461 72.2375106811523 68.7132263183594 59.9029197692871 53.9078216552734 52.8907356262207 52.3763427734375 50.7567138671875 50.3855171203613 49.894603729248 50.6247444152832 51.3768882751465 52.8329925537109 54.1948394775391 54.4809226989746 54.8993644714355 54.2324981689453 53.5394744873047 53.8533363342285 56.8406944274902 57.6986083984375 58.1694183349609 59.077220916748 60.6965446472168 61.3704490661621 60.5175514221191 60.8110237121582 61.5143241882324 63.9122505187988 65.4753952026367 67.0950469970703 72.2065811157227 74.1934127807617 77.4723205566406 82.5131225585938 85.09033203125 85.7951736450195 87.8710327148438 91.3605117797852 92.9037551879883 94.2134780883789 95.2792587280273 96.352668762207 97.6472854614258 99.0755844116211 100.331817626953 101.630027770996 102.351066589355 103.534248352051 104.832847595215 105.900123596191 110.113670349121 111.942176818848 113.291687011719 118.019714355469 119.177360534668 121.096801757813 120.858154296875 117.992469787598 108.667549133301 105.800651550293 96.1074829101563 94.0110549926758 91.5259017944336 90.2963638305664 87.8738784790039 86.9469604492188 86.3003005981445 86.7123031616211 89.3172073364258 90.7257461547852 92.9130020141602 94.6461868286133 95.8464965820313 98.1982116699219 99.416374206543 100.866737365723 102.956176757813 102.956176757813 108.212730407715 108.212730407715 110.346138000488 110.435661315918 110.115570068359 110.115570068359 110.083312988281 109.554969787598 108.081260681152 107.15047454834 107.15047454834 106.2822265625 105.690307617188 106.047874450684 106.928871154785 109.626136779785 109.626136779785 113.802024841309 115.20450592041 118.618110656738 120.580108642578 125.288299560547 123.528839111328 124.983825683594 123.692268371582 123.692268371582 121.685607910156 122.808036804199 124.70955657959 124.70955657959 128.493377685547 128.493377685547 130.636352539063 131.330947875977 132.204223632813 132.571334838867 132.571334838867 133.39892578125 133.39892578125 134.433746337891 136.518005371094 136.518005371094 137.44905090332 138.923782348633 139.546020507813 139.546020507813 140.764587402344 140.764587402344 141.394515991211 142.34733581543 142.763595581055 143.607986450195 143.849533081055 144.758499145508 145.545745849609 146.758712768555 147.717330932617 147.717330932617 149.049209594727 149.270523071289 149.830093383789 149.830093383789 150.530380249023
12.8016996383667 12.8016996383667 12.8016996383667 12.6613349914551 12.9247999191284 13.6493349075317 14.0324401855469 14.1912927627563 14.7997674942017 16.5382251739502 16.3406162261963 16.8742237091064 17.1201496124268 18.0102977752686 18.1157684326172 19.0807685852051 19.1772384643555 18.316987991333 18.316987991333 23.1346683502197 22.4907779693604 21.7161693572998 20.8946475982666 20.178279876709 19.6507740020752 19.5647888183594 19.5647888183594 19.6002750396729 19.7314624786377 18.9134254455566 18.1382961273193 18.1945323944092 23.1025848388672 28.7776184082031 34.6434440612793 40.8370208740234 48.0644836425781 54.2616539001465 62.1899566650391 66.0119781494141 67.9739761352539 72.2442855834961 76.6104431152344 75.8328323364258 73.3539047241211 70.8123321533203 62.8358879089355 56.0992317199707 50.6152038574219 50.0457458496094 49.8905334472656 49.8657646179199 49.2542304992676 47.7724800109863 48.2032203674316 49.6641120910645 50.509578704834 53.3078117370605 54.4416618347168 54.8759651184082 55.5054359436035 54.563159942627 54.9584465026855 56.1979103088379 57.223331451416 57.4853935241699 58.1438255310059 59.4508361816406 60.2811470031738 59.9830741882324 60.5393333435059 62.1894073486328 64.2470626831055 65.674919128418 68.4551467895508 71.6152114868164 74.4730453491211 77.8081970214844 80.4552993774414 82.0236434936523 84.8499755859375 86.9488830566406 89.0380935668945 90.6920547485352 92.2543563842773 93.8078842163086 96.537109375 98.0195541381836 99.2604904174805 100.167114257813 101.218231201172 101.85489654541 103.178535461426 103.752113342285 105.872741699219 106.50218963623 107.888526916504 111.964691162109 114.348777770996 115.336036682129 120.522285461426 122.151268005371 119.933158874512 112.740669250488 105.800651550293 103.922142028809 96.3488159179688 94.6728897094727 91.8247375488281 90.5661239624023 88.73046875 86.3003005981445 86.7123031616211 89.3172073364258 91.347900390625 95.9563827514648 97.1115493774414 99.439582824707 100.495338439941 99.416374206543 101.686614990234 103.177207946777 105.450218200684 109.120506286621 109.120506286621 110.351722717285 110.165100097656 109.739654541016 109.443626403809 108.127769470215 108.127769470215 108.081260681152 106.81298828125 105.512512207031 106.2822265625 104.040504455566 106.047874450684 106.928871154785 109.626136779785 110.915397644043 110.915397644043 113.530029296875 115.123252868652 120.580108642578 123.528839111328 123.528839111328 123.945930480957 122.566802978516 122.566802978516 121.685607910156 122.209594726563 125.632659912109 125.632659912109 128.493377685547 129.776382446289 129.776382446289 131.241088867188 131.693115234375 131.693115234375 132.458633422852 132.777099609375 133.633987426758 134.433746337891 136.518005371094 136.518005371094 137.44905090332 138.923782348633 139.546020507813 139.725479125977 140.764587402344 140.764587402344 141.394515991211 142.763595581055 142.763595581055 143.607986450195 143.607986450195 145.545745849609 145.545745849609 146.545425415039 148.348190307617 148.348190307617 149.049209594727 149.049209594727 150.109558105469 150.109558105469 150.530380249023
12.8016996383667 12.8016996383667 12.8016996383667 12.6613349914551 12.6613349914551 13.3013715744019 14.0324401855469 14.1912927627563 14.7997674942017 14.7997674942017 16.4173030853271 16.3406162261963 16.8742237091064 17.4273929595947 18.0102977752686 18.1157684326172 19.0807685852051 19.3373241424561 18.316987991333 18.316987991333 23.4430160522461 23.1346683502197 22.4907779693604 21.7161693572998 20.8946475982666 20.178279876709 19.6507740020752 19.5647888183594 19.5909118652344 19.7314624786377 20.5763912200928 25.6768341064453 28.6581172943115 35.8747520446777 38.6025657653809 46.1135864257813 51.5276298522949 57.7012329101563 64.0753707885742 66.933708190918 69.6959762573242 75.488151550293 77.0595016479492 74.9071273803711 69.6915817260742 65.7005386352539 53.8884391784668 49.3643341064453 47.2732963562012 47.5434761047363 47.4127464294434 47.7149200439453 47.9901008605957 46.5909080505371 46.453670501709 48.7532615661621 50.1277656555176 51.5196952819824 53.392578125 55.1051063537598 56.1239624023438 55.1206817626953 55.4478340148926 56.235523223877 56.8066596984863 57.0373191833496 57.7541160583496 59.546314239502 60.2259521484375 60.1792297363281 59.9794807434082 61.5688438415527 63.7345771789551 67.7051696777344 69.1593856811523 70.5902786254883 73.9839477539063 75.7494277954102 75.8381576538086 79.3868942260742 85.412223815918 86.0348739624023 87.7046813964844 89.311637878418 90.8152084350586 92.4850997924805 94.6518478393555 96.7966003417969 99.5553970336914 100.035133361816 100.666389465332 100.977714538574 101.249000549316 102.861427307129 104.067192077637 104.189880371094 106.713920593262 108.421882629395 112.655418395996 115.336036682129 116.902526855469 122.450012207031 123.097595214844 117.627006530762 109.640380859375 100.83992767334 103.040489196777 96.8258438110352 95.2072372436523 92.4413681030273 88.73046875 88.4119338989258 89.6985473632813 91.1428833007813 95.1423721313477 98.4625473022461 98.4625473022461 103.003479003906 103.907897949219 103.907897949219 104.675285339355 105.470703125 107.064147949219 108.443000793457 109.858009338379 109.858009338379 110.165100097656 108.415809631348 108.083671569824 107.29615020752 107.272918701172 107.272918701172 106.81298828125 105.512512207031 104.040504455566 104.040504455566 104.198677062988 105.769958496094 107.05982208252 109.68775177002 109.68775177002 113.530029296875 115.123252868652 118.900337219238 120.699363708496 120.699363708496 122.483825683594 122.566802978516 121.917915344238 121.917915344238 123.101371765137 124.622917175293 125.632659912109 127.336006164551 129.618255615234 129.618255615234 130.388366699219 131.693115234375 131.470413208008 132.458633422852 132.777099609375 133.633987426758 134.596084594727 134.596084594727 135.592178344727 137.550369262695 138.348251342773 138.348251342773 139.725479125977 140.369216918945 140.369216918945 141.668930053711 142.41569519043 142.41569519043 144.190246582031 144.190246582031 145.219039916992 145.545745849609 147.223770141602 148.067916870117 148.067916870117 149.410354614258 149.410354614258 149.9111328125 149.9111328125 150.825790405273
12.8016996383667 12.8016996383667 12.8016996383667 12.8016996383667 12.6613349914551 12.9247999191284 13.3013715744019 14.0324401855469 14.1912927627563 14.7997674942017 16.2261753082275 16.4173030853271 16.3406162261963 16.8742237091064 17.4273929595947 18.0102977752686 18.1157684326172 19.0807685852051 19.3373241424561 18.316987991333 18.316987991333 23.4430160522461 23.1346683502197 22.4907779693604 21.7161693572998 20.8946475982666 20.178279876709 19.6507740020752 19.5647888183594 22.0912418365479 29.300910949707 31.6985836029053 37.2896690368652 40.027946472168 44.8199653625488 48.5469551086426 54.2419166564941 61.567195892334 65.2623519897461 67.5722732543945 71.6148376464844 76.6155242919922 75.8209838867188 71.0432815551758 68.6079177856445 57.6703491210938 51.4342651367188 46.8817749023438 45.7254333496094 44.8494453430176 44.9894599914551 46.1633262634277 46.5434913635254 46.0208778381348 46.3794097900391 48.5186920166016 49.5133171081543 51.3150634765625 52.5305480957031 55.3066215515137 56.1250114440918 55.4831047058105 55.1129875183105 55.3983345031738 56.4824371337891 56.8331298828125 57.8907356262207 60.0803184509277 60.926815032959 60.8158874511719 60.871395111084 62.9700164794922 67.4456558227539 68.1594619750977 69.8296432495117 70.7546920776367 72.3108520507813 71.3520736694336 73.7797241210938 79.1767501831055 82.3693923950195 84.442024230957 86.1238632202148 87.7308959960938 89.2316665649414 92.7888107299805 95.2344589233398 97.1209716796875 97.9777450561523 98.7356491088867 98.795654296875 100.344627380371 100.388488769531 101.255737304688 101.002983093262 103.028961181641 104.028602600098 106.745750427246 107.121482849121 113.635719299316 115.860130310059 119.778648376465 123.772026062012 122.381591796875 114.185707092285 107.309181213379 100.702331542969 102.254188537598 96.9897766113281 95.4825439453125 93.7250747680664 91.385856628418 92.2604598999023 95.4326782226563 97.4014587402344 101.452850341797 102.142555236816 103.003479003906 105.174659729004 105.817588806152 106.148902893066 106.148902893066 106.863609313965 108.754943847656 109.416168212891 109.416168212891 109.10343170166 108.050163269043 107.431785583496 107.29615020752 105.513114929199 105.513114929199 104.699241638184 103.45223236084 101.65087890625 102.152587890625 102.545799255371 103.23607635498 106.304634094238 107.64331817627 110.899909973145 110.899909973145 113.820579528809 115.63565826416 120.699363708496 119.394630432129 122.483825683594 122.39624786377 121.923210144043 121.923210144043 123.101371765137 124.622917175293 124.622917175293 127.445137023926 128.444381713867 129.618255615234 130.388366699219 131.470413208008 131.470413208008 131.868835449219 132.569778442383 133.041549682617 133.041549682617 134.596084594727 135.592178344727 137.550369262695 138.348251342773 138.493942260742 139.248916625977 140.629318237305 140.629318237305 141.299087524414 142.41569519043 142.814178466797 144.190246582031 144.190246582031 145.219039916992 145.219039916992 147.223770141602 148.067916870117 148.067916870117 149.410354614258 149.410354614258 149.9111328125 149.9111328125 150.825790405273
12.8016996383667 12.8016996383667 12.8016996383667 12.8016996383667 12.8016996383667 12.6613349914551 12.9247999191284 13.6493349075317 14.0324401855469 14.7997674942017 14.7997674942017 16.2261753082275 16.4173030853271 16.5815315246582 17.1201496124268 17.4273929595947 18.0102977752686 18.1157684326172 19.0807685852051 19.3373241424561 18.316987991333 18.316987991333 22.9301662445068 23.4430160522461 23.1346683502197 22.4907779693604 21.7161693572998 20.8946475982666 23.0429306030273 27.9844512939453 35.0683479309082 37.1398582458496 40.6463928222656 41.9523429870605 46.6736946105957 54.4805946350098 57.9414253234863 62.4134521484375 65.5328674316406 68.0968933105469 72.4722061157227 75.2931900024414 72.045051574707 65.8240432739258 59.9119987487793 56.1330986022949 45.4735412597656 43.4795989990234 43.3424072265625 43.0308532714844 43.7972259521484 45.4010429382324 46.0231285095215 45.7430992126465 46.8549957275391 48.3545875549316 50.4040412902832 51.646312713623 53.2423896789551 54.4896354675293 56.1209754943848 55.5821266174316 55.1036071777344 55.2573432922363 56.2322082519531 56.9326934814453 59.7050971984863 60.9885063171387 61.7653312683105 61.5761451721191 61.2214698791504 65.4784927368164 70.255973815918 71.5001754760742 70.4865417480469 70.3087387084961 70.5538558959961 70.0200271606445 71.4840774536133 78.0194702148438 80.7513656616211 82.7116012573242 84.3932571411133 85.6295852661133 86.9383163452148 88.7946090698242 91.639404296875 95.9970321655273 96.6781387329102 98.1078872680664 97.8477172851563 97.6247329711914 98.4745483398438 100.135559082031 99.8038864135742 100.776519775391 102.545906066895 103.789207458496 104.114097595215 107.341514587402 111.140716552734 119.529685974121 122.87548828125 122.615577697754 118.87882232666 107.309181213379 105.307090759277 100.160247802734 96.8367538452148 96.8367538452148 93.7250747680664 93.8968124389648 96.3399658203125 98.0678329467773 101.416664123535 103.52564239502 103.52564239502 107.177680969238 107.959678649902 108.279296875 108.983642578125 107.995574951172 107.939079284668 108.451545715332 108.990600585938 108.84822845459 108.84822845459 108.050163269043 106.054176330566 105.821464538574 104.893257141113 104.207702636719 102.976432800293 102.976432800293 101.65087890625 100.982200622559 100.982200622559 103.23607635498 106.304634094238 107.64331817627 107.64331817627 109.974555969238 111.30199432373 115.63565826416 119.394630432129 119.394630432129 120.762001037598 121.532081604004 121.70792388916 122.582672119141 122.582672119141 125.204406738281 125.204406738281 126.323280334473 128.444381713867 128.444381713867 129.994140625 130.624176025391 130.624176025391 131.557723999023 131.940231323242 133.041549682617 132.91276550293 133.667556762695 135.675476074219 136.70263671875 138.493942260742 138.493942260742 139.248916625977 140.629318237305 140.629318237305 141.299087524414 142.814178466797 142.814178466797 143.744369506836 143.744369506836 145.781265258789 145.781265258789 146.78630065918 148.481811523438 148.481811523438 149.123229980469 149.123229980469 150.207809448242 150.207809448242 150.701644897461
13.2876892089844 12.8016996383667 12.8016996383667 12.8016996383667 12.8016996383667 12.6613349914551 12.6613349914551 13.3013715744019 14.0324401855469 14.1912927627563 14.7997674942017 14.7997674942017 16.5382251739502 16.4173030853271 16.5815315246582 17.1201496124268 17.8078060150146 18.0102977752686 18.1157684326172 19.0807685852051 19.3373241424561 18.5662441253662 18.316987991333 21.5216274261475 23.4430160522461 23.1346683502197 22.4907779693604 23.5764598846436 28.4316883087158 36.8066749572754 38.8611717224121 40.6240577697754 42.2440528869629 46.7941474914551 50.3132171630859 55.8393249511719 58.9246711730957 63.1622734069824 65.9287185668945 67.484992980957 70.5898056030273 73.5277099609375 66.7983474731445 61.0628051757813 52.1864929199219 48.6643943786621 42.2973480224609 41.6160125732422 42.0248146057129 42.0301856994629 43.2162017822266 44.1043434143066 46.0728340148926 45.9216728210449 46.7079048156738 48.9380149841309 50.9228248596191 52.1396789550781 53.5667610168457 54.5812492370605 55.9908142089844 55.7227745056152 55.2548942565918 55.6642646789551 56.4409217834473 57.3201293945313 59.3547210693359 60.7326774597168 62.2164726257324 62.8240356445313 63.2404670715332 69.0249862670898 74.9272079467773 73.5655136108398 70.93310546875 70.0752182006836 69.1387252807617 68.9905242919922 71.8119659423828 75.6665267944336 78.7823181152344 80.5872116088867 82.2116775512695 83.4504165649414 84.6122970581055 86.6462097167969 89.8634262084961 92.7824478149414 95.7285385131836 95.868278503418 96.0686111450195 95.7058639526367 97.5612869262695 97.3258743286133 97.7243270874023 99.7159957885742 99.275520324707 100.014274597168 102.457969665527 104.174438476563 107.873085021973 114.806938171387 122.583045959473 123.713569641113 118.87882232666 114.944984436035 105.307090759277 100.850212097168 99.033935546875 99.033935546875 97.531982421875 96.8701705932617 98.4387130737305 101.93221282959 101.416664123535 106.255882263184 106.255882263184 108.610717773438 108.610717773438 109.154609680176 108.983642578125 108.392845153809 108.392845153809 108.451545715332 108.644477844238 107.860572814941 107.860572814941 106.733520507813 106.054176330566 105.23136138916 104.893257141113 102.398498535156 100.84447479248 100.84447479248 99.3268508911133 98.950798034668 98.950798034668 102.581848144531 104.360557556152 106.963829040527 106.963829040527 108.082908630371 111.30199432373 114.83251953125 116.792457580566 116.792457580566 119.852149963379 121.532081604004 121.70792388916 121.70792388916 123.152961730957 124.25316619873 126.323280334473 126.323280334473 128.029235839844 128.029235839844 128.808883666992 130.624176025391 130.168441772461 131.557723999023 131.940231323242 132.91276550293 132.91276550293 133.667556762695 135.675476074219 136.70263671875 136.770004272461 137.763412475586 139.462142944336 140.198791503906 140.198791503906 141.638488769531 142.406799316406 142.406799316406 144.1953125 144.1953125 145.203414916992 145.781265258789 146.78630065918 147.988098144531 148.481811523438 149.123229980469 149.123229980469 149.992492675781 150.207809448242 150.701644897461
13.2876892089844 13.2876892089844 12.8016996383667 12.8016996383667 12.8016996383667 12.8016996383667 12.6613349914551 12.9247999191284 13.6493349075317 14.0324401855469 14.1912927627563 14.7997674942017 15.7468137741089 16.5382251739502 16.3406162261963 16.8742237091064 17.1201496124268 17.8078060150146 18.0102977752686 18.1157684326172 19.0807685852051 19.3373241424561 18.5662441253662 18.316987991333 21.5216274261475 22.9301662445068 23.9384460449219 28.8964691162109 35.1685485839844 40.3207130432129 43.044620513916 45.0200004577637 46.0436973571777 48.6837425231934 51.560359954834 56.6321716308594 59.5580558776855 63.0452423095703 65.4257125854492 67.4363174438477 69.5560684204102 70.2118911743164 66.4956817626953 58.6145172119141 51.5306587219238 43.2278175354004 41.3731079101563 40.9034004211426 41.0568199157715 41.1976928710938 42.2760200500488 43.893798828125 45.8844299316406 46.0222320556641 47.0828437805176 50.5483360290527 51.5092811584473 53.1995239257813 53.8642120361328 54.5254020690918 55.570873260498 55.5553398132324 55.1607933044434 55.576488494873 56.3865966796875 58.4767951965332 59.7642211914063 61.7467346191406 62.4664916992188 63.1998596191406 64.8339309692383 72.5774459838867 76.0997924804688 75.694206237793 71.0850601196289 70.4126663208008 69.4628219604492 68.9602584838867 71.283935546875 72.713020324707 76.6377334594727 78.6645812988281 80.417854309082 81.789306640625 84.3146667480469 87.1424331665039 90.5682678222656 92.7858657836914 93.4027404785156 94.2042770385742 93.6675491333008 94.6268005371094 95.5361099243164 95.2383499145508 96.9075088500977 97.5525283813477 97.2313003540039 98.4383544921875 99.6387329101563 102.365997314453 102.687522888184 110.336486816406 118.799621582031 122.482780456543 120.957580566406 113.916206359863 105.231239318848 102.868309020996 99.3951034545898 98.7418823242188 98.2424087524414 98.2424087524414 101.73218536377 101.93221282959 103.312255859375 105.673454284668 107.695007324219 110.04638671875 110.04638671875 110.556968688965 110.279724121094 110.310035705566 109.377777099609 108.871856689453 108.644477844238 108.082405090332 106.799133300781 105.721565246582 105.721565246582 104.427955627441 103.616767883301 102.398498535156 100.758079528809 98.9962387084961 97.7971725463867 97.7971725463867 98.2599563598633 100.279472351074 104.922973632813 104.922973632813 108.082908630371 108.082908630371 110.95467376709 112.670112609863 116.792457580566 116.558570861816 119.852149963379 120.709800720215 121.618339538574 121.618339538574 123.152961730957 124.25316619873 126.120475769043 126.120475769043 126.827178955078 128.808883666992 128.808883666992 130.168441772461 130.168441772461 130.703552246094 131.573547363281 131.573547363281 132.074340820313 133.583847045898 134.595657348633 136.770004272461 136.770004272461 137.763412475586 139.462142944336 140.198791503906 140.198791503906 141.638488769531 142.406799316406 142.406799316406 144.1953125 144.1953125 145.203414916992 147.136734008789 147.136734008789 147.988098144531 147.988098144531 149.40869140625 149.40869140625 149.992492675781 149.992492675781 151.108184814453
13.2876892089844 13.2876892089844 13.2876892089844 12.8016996383667 12.8016996383667 12.8016996383667 12.8016996383667 12.6613349914551 12.9247999191284 13.6493349075317 14.1912927627563 14.7997674942017 14.7997674942017 16.2261753082275 16.5382251739502 16.3406162261963 16.8742237091064 17.4273929595947 18.1246032714844 18.0102977752686 18.1157684326172 19.0807685852051 19.3373241424561 18.5662441253662 18.316987991333 21.5216274261475 27.9540576934814 37.4307746887207 39.7590217590332 43.1977500915527 46.3616676330566 47.7964324951172 48.6228485107422 50.7383117675781 54.3725891113281 58.7165985107422 61.5997734069824 64.2036666870117 65.294807434082 66.6528549194336 67.5909957885742 66.0120620727539 59.1985282897949 54.3550453186035 44.8715209960938 40.3166351318359 40.3671226501465 40.4964828491211 40.6025733947754 40.9083213806152 42.0753593444824 44.066967010498 44.8799934387207 45.8897590637207 48.3738212585449 50.2608451843262 51.5629577636719 52.9850044250488 54.315975189209 54.9068603515625 55.3730049133301 55.3727111816406 55.1979370117188 55.3505249023438 56.9674987792969 58.2613639831543 59.3971061706543 61.0101737976074 61.9786262512207 62.8873596191406 70.5869522094727 76.0016098022461 78.6401672363281 75.0439987182617 71.8829574584961 70.2997741699219 68.6677474975586 68.3157730102539 68.6591796875 71.5604019165039 74.6445083618164 76.9807815551758 78.2556228637695 78.76611328125 79.4912490844727 81.8822860717773 85.8207015991211 90.6154174804688 91.3309555053711 93.0948867797852 92.3328857421875 92.4562454223633 91.9979553222656 93.9281692504883 94.8035583496094 94.2939758300781 95.4827651977539 95.951057434082 97.9389038085938 97.1465759277344 102.687522888184 104.582176208496 117.815979003906 120.368598937988 118.438446044922 115.330924987793 109.233551025391 102.270652770996 100.613708496094 99.986930847168 100.550926208496 102.472145080566 103.497825622559 103.497825622559 105.821937561035 106.809692382813 109.095909118652 110.01424407959 110.797691345215 110.977714538574 111.584358215332 111.104248046875 109.377777099609 110.141380310059 108.829132080078 107.95581817627 106.395812988281 105.16463470459 104.693840026855 104.427955627441 103.741554260254 102.427429199219 100.758079528809 97.6474227905273 96.4312973022461 96.4312973022461 98.2599563598633 100.279472351074 100.279472351074 104.900978088379 107.958709716797 107.958709716797 109.503044128418 112.670112609863 116.558570861816 118.25089263916 118.25089263916 120.237159729004 120.969871520996 122.403923034668 122.403923034668 124.369506835938 125.117950439453 125.117950439453 126.827178955078 128.293334960938 128.293334960938 129.022842407227 129.022842407227 130.190887451172 131.573547363281 131.573547363281 132.074340820313 133.583847045898 134.595657348633 134.595657348633 136.770004272461 137.845596313477 138.789321899414 140.448303222656 140.448303222656 141.218215942383 142.820465087891 142.820465087891 143.678787231445 143.678787231445 145.521682739258 146.449966430664 146.449966430664 147.988098144531 148.151550292969 148.930725097656 149.40869140625 149.992492675781 150.33122253418 150.953063964844
13.7027816772461 13.2876892089844 13.2876892089844 13.2876892089844 12.8016996383667 12.8016996383667 12.8016996383667 12.6613349914551 12.6613349914551 13.3013715744019 14.0324401855469 14.1912927627563 14.7997674942017 15.0455093383789 16.2261753082275 16.4173030853271 16.3406162261963 16.8742237091064 17.4273929595947 18.1246032714844 18.0102977752686 18.1157684326172 19.0807685852051 19.3373241424561 18.5662441253662 23.7228717803955 33.8198051452637 41.6461982727051 42.7742919921875 45.1715393066406 47.8714904785156 49.8166694641113 50.584300994873 53.1411590576172 56.796947479248 59.5948219299316 62.2204780578613 64.011360168457 64.4585876464844 65.1413650512695 64.52294921875 61.135986328125 53.8668365478516 48.6733093261719 40.8464546203613 39.4537925720215 39.7997436523438 40.466007232666 40.3285827636719 40.602840423584 42.1643028259277 42.7869148254395 44.1972198486328 46.0274467468262 47.5312652587891 50.8821907043457 51.3910827636719 52.6850318908691 54.1460266113281 54.6704406738281 55.3606567382813 55.4446678161621 55.3409614562988 55.604419708252 56.5226783752441 57.7309417724609 60.2345771789551 61.1011657714844 62.0797920227051 65.2399749755859 69.2910842895508 80.0098648071289 78.1246643066406 74.1256484985352 71.2691116333008 70.5015258789063 69.0121078491211 66.9776306152344 67.2223587036133 67.8292922973633 70.7054977416992 75.2877578735352 76.1748657226563 76.1056594848633 76.3933410644531 78.8218078613281 83.2871398925781 86.5135726928711 90.0400390625 89.3136291503906 90.0714111328125 89.150505065918 91.0016708374023 91.4363021850586 93.3808517456055 92.5617599487305 93.1135025024414 94.0577392578125 94.8451919555664 97.1465759277344 96.8754806518555 99.5582275390625 107.589561462402 117.873954772949 117.46900177002 111.866371154785 109.172386169434 103.254112243652 100.866111755371 100.892539978027 101.08553314209 104.746376037598 106.386878967285 106.822364807129 106.822364807129 108.173194885254 109.020263671875 110.473243713379 111.277679443359 111.643592834473 111.68058013916 111.104248046875 110.969032287598 109.986976623535 109.180656433105 107.95581817627 107.330665588379 105.773254394531 104.693840026855 103.741554260254 103.754821777344 101.812065124512 99.6533508300781 97.6474227905273 96.6121597290039 96.2142562866211 96.8892822265625 100.082214355469 100.082214355469 104.408988952637 106.817626953125 106.817626953125 110.3466796875 113.175682067871 115.104194641113 115.104194641113 118.267250061035 120.237159729004 120.969871520996 122.593566894531 122.593566894531 123.458961486816 125.117950439453 124.780029296875 126.363990783691 127.050476074219 127.050476074219 128.457901000977 128.457901000977 130.190887451172 130.678375244141 130.678375244141 131.752639770508 132.507369995117 134.54426574707 134.54426574707 135.691452026367 137.845596313477 138.789321899414 138.789321899414 140.448303222656 141.218215942383 142.34114074707 142.820465087891 143.678787231445 144.015655517578 145.521682739258 146.449966430664 146.449966430664 148.151550292969 148.151550292969 148.930725097656 148.930725097656 150.33122253418 150.33122253418 150.953063964844
13.7935495376587 13.7027816772461 13.2876892089844 13.2876892089844 13.2876892089844 12.8016996383667 12.8016996383667 12.8016996383667 12.6613349914551 12.9247999191284 13.6493349075317 14.0324401855469 14.7376432418823 14.7997674942017 15.3788194656372 16.2261753082275 16.4173030853271 16.5815315246582 16.8742237091064 17.4273929595947 18.1246032714844 18.0102977752686 18.1157684326172 19.0807685852051 22.4239273071289 27.8310241699219 41.6806640625 44.3717842102051 46.213680267334 47.5105094909668 49.7312622070313 51.2076301574707 51.9352607727051 54.4125213623047 58.1692199707031 60.3647155761719 62.5862846374512 63.2287864685059 64.048828125 64.1482543945313 60.4557609558105 55.9400444030762 51.2294044494629 44.7726287841797 39.4793357849121 38.8099403381348 39.9372253417969 40.5993347167969 40.16259765625 40.5827445983887 41.3514823913574 42.4976387023926 43.9610481262207 45.2500610351563 48.393497467041 50.0603637695313 51.3207740783691 52.9732093811035 53.7874755859375 54.6459007263184 55.3158988952637 55.5957336425781 55.4781799316406 55.3232460021973 56.5623664855957 58.8769035339355 60.0175895690918 61.651439666748 64.4702987670898 67.4375228881836 76.301399230957 79.8045425415039 79.1691055297852 70.8430709838867 70.2684097290039 69.87646484375 66.4756774902344 65.5444564819336 65.8970718383789 68.5003967285156 71.3315734863281 73.5606994628906 72.398063659668 71.9973297119141 71.1225051879883 71.7911376953125 79.361328125 83.6679382324219 86.8303451538086 86.2890701293945 88.2775497436523 87.522705078125 86.9513931274414 87.8392868041992 90.7581176757813 89.6698379516602 90.8608169555664 91.3367538452148 92.6291885375977 90.9743041992188 92.4244003295898 97.2969131469727 101.105285644531 113.247291564941 113.408973693848 110.913856506348 106.397987365723 102.535179138184 101.804107666016 102.807395935059 103.26390838623 105.003532409668 106.386878967285 108.150093078613 108.150093078613 108.398620605469 109.516212463379 110.473243713379 110.985389709473 111.643592834473 111.907814025879 111.907814025879 111.513465881348 110.684387207031 108.869422912598 108.869422912598 107.999877929688 106.493629455566 105.216003417969 104.963386535645 103.014671325684 100.678405761719 100.678405761719 98.3909072875977 96.6121597290039 96.2142562866211 98.0371932983398 98.0371932983398 102.455017089844 104.408988952637 107.661231994629 109.645957946777 110.3466796875 112.303871154785 116.00008392334 116.00008392334 118.267250061035 119.395866394043 120.982078552246 121.820213317871 121.820213317871 123.458961486816 124.780029296875 124.780029296875 125.319374084473 126.550788879395 126.550788879395 128.457901000977 129.090835571289 129.090835571289 130.15397644043 130.15397644043 130.727432250977 132.507369995117 132.265869140625 134.54426574707 135.691452026367 136.809600830078 138.845321655273 138.845321655273 139.767639160156 141.507202148438 142.34114074707 142.34114074707 144.015655517578 144.015655517578 144.850448608398 146.540588378906 146.540588378906 147.39079284668 147.39079284668 149.069229125977 149.069229125977 149.885940551758 149.885940551758 151.317642211914
13.5214357376099 13.5214357376099 13.7027816772461 13.2876892089844 13.2876892089844 13.2876892089844 12.8016996383667 12.8016996383667 12.8016996383667 12.6613349914551 13.3013715744019 13.90025806427 14.1912927627563 14.7997674942017 14.7997674942017 15.7468137741089 16.5382251739502 16.4173030853271 16.5815315246582 17.1201496124268 17.4273929595947 18.1246032714844 18.0102977752686 20.5109729766846 25.7217807769775 37.9232940673828 44.3116455078125 46.2794189453125 47.7108879089355 49.5685920715332 51.0764656066895 52.017391204834 52.7811584472656 55.6581268310547 59.4093742370605 60.8198852539063 61.6074256896973 61.8597221374512 62.1502532958984 61.7155113220215 58.9066123962402 54.2776908874512 50.0171966552734 43.3190727233887 41.5650367736816 39.0057106018066 40.2515983581543 40.6616554260254 40.2097053527832 40.3803825378418 41.5753784179688 42.4129524230957 43.4083404541016 46.115795135498 47.8023567199707 49.8781852722168 51.6579475402832 53.0569343566895 53.9023704528809 55.04833984375 55.5138206481934 55.8676300048828 55.6014404296875 55.5496978759766 56.3664512634277 59.6057395935059 61.7627754211426 62.8223304748535 66.2715454101563 69.4687271118164 76.9746932983398 79.3579788208008 74.0877914428711 70.963020324707 69.5114135742188 69.3538131713867 66.532470703125 63.3939018249512 63.4470634460449 65.4572067260742 67.7583694458008 69.719856262207 70.8562622070313 69.8019943237305 69.212043762207 70.930549621582 74.6423568725586 76.8686981201172 80.0814437866211 84.4397811889648 84.5015869140625 85.4808654785156 85.4371871948242 86.1884231567383 85.802001953125 87.3156127929688 87.9548416137695 88.8319320678711 86.3092651367188 86.9149398803711 89.317497253418 91.5072631835938 98.5275039672852 109.597434997559 110.1640625 106.9765625 105.005897521973 103.17830657959 103.013145446777 103.990013122559 104.080169677734 106.805603027344 107.786598205566 108.605735778809 108.511352539063 108.980712890625 109.516212463379 110.05086517334 110.857604980469 111.636901855469 111.804901123047 111.875915527344 111.38321685791 110.684387207031 110.527656555176 109.274620056152 107.999877929688 107.785400390625 106.407188415527 104.963386535645 103.014671325684 101.283805847168 101.283805847168 98.8613662719727 97.0562362670898 96.7368698120117 96.7368698120117 98.8149948120117 103.013984680176 106.517189025879 106.517189025879 109.645957946777 109.645957946777 113.784149169922 116.00008392334 117.470825195313 117.470825195313 119.52855682373 120.382080078125 121.820213317871 121.820213317871 123.349327087402 123.921936035156 123.921936035156 124.878120422363 126.550788879395 127.228706359863 127.228706359863 128.453399658203 128.453399658203 130.15397644043 130.727432250977 130.727432250977 132.265869140625 132.265869140625 133.290969848633 135.648864746094 136.809600830078 136.809600830078 138.845321655273 139.767639160156 141.507202148438 141.507202148438 142.570114135742 143.386306762695 143.386306762695 144.952194213867 145.714050292969 145.714050292969 147.39079284668 147.340286254883 148.239547729492 149.069229125977 149.885940551758 150.036819458008 151.317642211914
13.2345323562622 13.4272155761719 13.5214357376099 13.7027816772461 13.7027816772461 13.2876892089844 13.2876892089844 12.8016996383667 12.8016996383667 12.8016996383667 12.9247999191284 13.3013715744019 14.0324401855469 14.1912927627563 14.7997674942017 15.0455093383789 15.7468137741089 16.5382251739502 16.3406162261963 16.5815315246582 17.1201496124268 17.8078060150146 20.1767177581787 24.8936786651611 28.8581256866455 40.3564605712891 46.5538024902344 48.2941398620605 49.4377593994141 50.9697608947754 51.8821067810059 52.3941612243652 54.9458885192871 57.9154319763184 60.9068794250488 60.8926429748535 60.5109825134277 60.329906463623 59.6473121643066 56.5321960449219 56.0903778076172 50.4674224853516 47.3885345458984 44.1876335144043 40.4753875732422 39.305591583252 40.3290596008301 40.6106452941895 40.4241752624512 40.9351692199707 42.3254547119141 43.3418579101563 44.6513214111328 46.3732757568359 48.4839019775391 51.1859169006348 52.1833953857422 53.1173820495605 54.7901954650879 55.3828430175781 56.322093963623 56.6021308898926 56.6191520690918 57.3239860534668 58.8199119567871 60.6627807617188 62.9744873046875 64.1333694458008 65.967643737793 74.3613662719727 77.6614456176758 78.1596450805664 72.3094711303711 69.6785507202148 69.1526184082031 67.5937728881836 65.0207061767578 63.3084602355957 63.1852531433105 65.0230484008789 66.7453231811523 67.9809875488281 67.1292266845703 65.9950332641602 65.8499221801758 67.076530456543 69.8128662109375 72.2112121582031 78.1034164428711 79.4821166992188 83.2362289428711 84.9423675537109 84.9959411621094 84.8592910766602 85.0762405395508 84.0947189331055 85.1735305786133 85.5746841430664 82.5720520019531 83.4929428100586 84.4453964233398 88.2101058959961 91.4219741821289 103.194526672363 105.584777832031 104.892395019531 104.986228942871 103.252265930176 103.818183898926 103.990013122559 106.305473327637 107.291282653809 107.948181152344 109.215766906738 109.144248962402 109.12964630127 109.251243591309 109.875480651855 110.170082092285 111.143196105957 111.454261779785 111.784889221191 111.706428527832 111.706428527832 111.179443359375 109.274620056152 108.928649902344 108.928649902344 107.635871887207 106.006340026855 103.806526184082 103.209320068359 100.729209899902 98.5619506835938 98.5619506835938 97.3979873657227 98.189697265625 101.418975830078 103.013984680176 106.026313781738 107.575561523438 111.166343688965 113.347351074219 113.784149169922 115.55184173584 118.113243103027 118.113243103027 119.52855682373 120.382080078125 121.906883239746 121.906883239746 122.570579528809 123.528450012207 123.528450012207 124.878120422363 125.423057556152 126.618591308594 126.618591308594 127.210350036621 128.453399658203 129.029052734375 130.242309570313 130.242309570313 131.026016235352 131.026016235352 133.106155395508 134.316879272461 136.70458984375 136.70458984375 137.796585083008 139.782623291016 140.752258300781 140.752258300781 142.570114135742 143.386306762695 143.386306762695 144.952194213867 145.714050292969 145.714050292969 147.340286254883 147.340286254883 148.239547729492 148.239547729492 150.036819458008 150.036819458008 150.846694946289
12.963568687439 13.2345323562622 13.4272155761719 13.5214357376099 13.7935495376587 13.7027816772461 13.2876892089844 13.2876892089844 12.8016996383667 12.8016996383667 12.6613349914551 12.9247999191284 13.6493349075317 14.0324401855469 14.7376432418823 14.7997674942017 15.3788194656372 16.2261753082275 16.5382251739502 16.3406162261963 16.8742237091064 20.2272281646729 24.2699604034424 27.9050922393799 31.2686920166016 42.7000732421875 48.7400245666504 50.7271156311035 50.6366310119629 51.2308502197266 52.1934089660645 52.7885322570801 55.3448524475098 58.4441032409668 61.1032409667969 60.5025177001953 58.809253692627 59.1990242004395 56.9873962402344 55.7193450927734 52.0102844238281 47.9666900634766 46.1516380310059 45.0958290100098 42.8804206848145 40.7249717712402 40.3655815124512 40.560962677002 40.5395622253418 41.471019744873 42.5031242370605 44.1677589416504 46.624210357666 48.4354400634766 50.9770698547363 52.1422882080078 53.662670135498 54.40380859375 55.2465934753418 56.6584739685059 56.4166984558105 56.8557586669922 57.2487678527832 57.6889533996582 58.8593101501465 62.0658836364746 63.9934196472168 65.1264572143555 69.0405960083008 72.6988830566406 75.8481216430664 75.8673782348633 70.2842636108398 68.8418655395508 69.1889419555664 68.3577041625977 65.1408309936523 61.9771156311035 62.5095024108887 64.1273727416992 66.517333984375 66.3275375366211 65.4505233764648 64.035530090332 62.7354278564453 62.7161445617676 69.2145919799805 71.5180130004883 74.417839050293 77.0861282348633 80.9916763305664 84.8760452270508 85.7833251953125 83.9676742553711 81.7092819213867 81.0664978027344 81.7274169921875 78.7306289672852 79.1121139526367 79.4273300170898 81.0050048828125 82.579948425293 88.1601943969727 98.9024429321289 100.72607421875 104.892395019531 103.283561706543 103.377197265625 105.143836975098 106.14013671875 107.182807922363 108.320747375488 108.713104248047 109.161567687988 109.393028259277 108.996208190918 109.085998535156 109.175590515137 110.170082092285 110.767242431641 111.454261779785 111.466148376465 111.745658874512 111.659385681152 111.179443359375 110.168830871582 110.037353515625 108.865592956543 107.487648010254 107.487648010254 105.589630126953 103.209320068359 100.729209899902 100.093940734863 99.0059280395508 99.0059280395508 99.7669372558594 102.617729187012 101.418975830078 106.026313781738 110.23999786377 110.23999786377 113.347351074219 113.347351074219 116.659690856934 117.750358581543 119.042358398438 119.042358398438 120.565757751465 121.252418518066 121.252418518066 122.318908691406 123.528450012207 123.945304870605 123.945304870605 124.87149810791 125.389106750488 126.618591308594 127.210350036621 127.210350036621 128.315628051758 128.955429077148 130.242309570313 131.026016235352 133.106155395508 133.106155395508 134.316879272461 136.70458984375 136.70458984375 137.796585083008 139.782623291016 139.782623291016 140.707153320313 141.691070556641 143.386245727539 143.386245727539 144.11735534668 145.566329956055 145.566329956055 146.342361450195 146.342361450195 148.112197875977 148.112197875977 149.092788696289 150.036819458008 150.855575561523
12.963568687439 12.963568687439 12.963568687439 13.4272155761719 13.5214357376099 13.7935495376587 13.7027816772461 13.2876892089844 13.2876892089844 12.8016996383667 12.8016996383667 12.6613349914551 13.3013715744019 13.90025806427 14.1912927627563 15.0199432373047 14.8371858596802 15.3788194656372 16.2261753082275 16.8043899536133 18.9730262756348 22.9839725494385 26.500452041626 29.7602977752686 32.6102409362793 44.4887275695801 50.3405570983887 51.2814025878906 51.2052116394043 51.631103515625 52.273265838623 53.38623046875 55.9921989440918 58.582592010498 60.7923316955566 59.2216186523438 57.2363128662109 56.7295989990234 53.9488258361816 52.8573112487793 49.4982490539551 46.5766181945801 45.8311157226563 45.5887107849121 43.974048614502 41.5600776672363 41.5014038085938 40.9787559509277 41.1990966796875 42.5442771911621 44.0345420837402 47.9027442932129 49.9652214050293 51.5495948791504 52.6996040344238 53.1145057678223 53.737247467041 55.1243133544922 55.9861755371094 56.7561531066895 58.2270202636719 59.0393371582031 59.8446083068848 61.6100730895996 62.8569221496582 64.1579666137695 64.2234115600586 65.6649856567383 68.3022232055664 71.3368301391602 75.4249877929688 73.65576171875 69.1452713012695 68.443733215332 69.2246017456055 68.0749893188477 63.5918159484863 62.8887138366699 63.3259086608887 65.892463684082 66.5726699829102 66.4786682128906 64.3230209350586 62.8175354003906 62.0955200195313 63.1106605529785 65.6032180786133 70.013671875 73.8845748901367 78.63037109375 83.1262817382813 87.5664443969727 86.6646957397461 84.9856948852539 81.9679489135742 78.6181945800781 78.216438293457 78.7306289672852 75.5876846313477 76.1716003417969 76.7968292236328 79.4325942993164 88.4816055297852 91.8615493774414 96.0642776489258 97.2145156860352 101.5654296875 104.361999511719 104.361999511719 106.940124511719 108.156837463379 108.308967590332 108.60001373291 108.984733581543 109.236045837402 108.996208190918 108.682037353516 109.175590515137 109.628112792969 109.939674377441 110.232276916504 110.838195800781 111.469505310059 111.862525939941 111.862525939941 111.633361816406 110.037353515625 108.865592956543 108.410491943359 108.410491943359 106.583000183105 104.433967590332 102.158561706543 101.822715759277 100.196166992188 99.9220504760742 99.9220504760742 101.590980529785 102.617729187012 106.80542755127 111.166053771973 111.166053771973 114.60945892334 116.154113769531 116.154113769531 117.750358581543 119.359886169434 119.359886169434 120.029754638672 121.252418518066 122.318908691406 122.318908691406 122.704154968262 123.347358703613 123.347358703613 124.87149810791 125.389106750488 125.389106750488 126.401084899902 126.930717468262 126.930717468262 128.955429077148 128.955429077148 130.59489440918 131.649948120117 131.649948120117 134.108871459961 134.108871459961 135.335845947266 137.563598632813 138.627304077148 138.627304077148 140.707153320313 141.691070556641 143.386245727539 143.386245727539 144.11735534668 145.566329956055 145.566329956055 146.342361450195 145.958267211914 148.112197875977 149.092788696289 149.092788696289 149.750961303711 150.855575561523
12.0205764770508 13.3433609008789 12.963568687439 12.963568687439 13.2345323562622 13.4272155761719 13.5214357376099 13.7027816772461 13.2876892089844 13.2876892089844 12.8016996383667 12.8016996383667 12.9247999191284 13.6493349075317 14.0324401855469 14.7376432418823 14.7997674942017 15.0455093383789 15.8699655532837 20.3200435638428 21.7228183746338 26.7144412994385 30.1423110961914 33.2928581237793 37.0708618164063 44.0502967834473 49.6082191467285 51.0805969238281 51.4684448242188 51.7402763366699 52.1985893249512 54.1466979980469 57.0278816223145 59.8016662597656 60.3534240722656 57.6140098571777 55.4562187194824 55.3116149902344 53.5207672119141 50.4859008789063 48.0531463623047 46.0769996643066 46.0165901184082 47.0768280029297 46.795581817627 44.4331207275391 44.3204040527344 42.9524345397949 43.4054107666016 42.9102897644043 45.8467063903809 47.8916015625 51.7615623474121 52.9860534667969 53.8878593444824 54.548641204834 55.2564353942871 55.8656959533691 56.8570251464844 58.9814758300781 60.0431213378906 62.7175102233887 64.0393600463867 64.1829223632813 65.1408004760742 66.6679916381836 66.0484085083008 67.4672317504883 69.1064376831055 71.852409362793 73.9934616088867 72.1575546264648 68.314453125 68.5937423706055 69.4002456665039 69.0421371459961 66.3949661254883 64.229850769043 66.2277450561523 67.0479888916016 67.9399948120117 67.2163925170898 65.8961868286133 64.4047546386719 62.7559928894043 64.1614761352539 67.0297470092773 70.5486145019531 76.9572143554688 82.2008361816406 83.9310913085938 86.8292007446289 89.0451278686523 87.4664077758789 80.2407760620117 77.533805847168 75.3505020141602 72.4090881347656 72.6241073608398 72.8928070068359 73.959602355957 75.0204238891602 81.8134689331055 87.7082138061523 90.0873031616211 97.2145156860352 99.0031661987305 100.329383850098 104.960693359375 106.940124511719 107.56534576416 107.670433044434 108.364959716797 108.301208496094 108.881950378418 108.15894317627 108.081733703613 108.591819763184 108.749732971191 109.576324462891 110.148284912109 110.88077545166 110.88077545166 111.633422851563 111.950950622559 111.518196105957 110.818351745605 109.760650634766 109.453788757324 107.922554016113 106.024559020996 106.024559020996 103.937805175781 101.822715759277 101.289894104004 100.977256774902 100.977256774902 102.266357421875 104.991851806641 109.280731201172 109.280731201172 113.354522705078 113.354522705078 116.154113769531 116.612335205078 118.195617675781 118.876029968262 118.876029968262 120.029754638672 121.135414123535 121.538200378418 121.538200378418 122.050910949707 122.277275085449 123.347358703613 123.728630065918 124.593688964844 124.593688964844 125.013893127441 126.930717468262 125.943794250488 128.211776733398 128.211776733398 129.067520141602 131.649948120117 131.232345581055 134.108871459961 134.108871459961 135.335845947266 137.563598632813 138.627304077148 138.627304077148 140.707153320313 141.470642089844 141.470642089844 142.349624633789 143.807189941406 144.494323730469 144.494323730469 145.958267211914 145.958267211914 146.828857421875 148.798034667969 148.798034667969 149.750961303711 149.750961303711
11.1811103820801 12.0205764770508 13.3433609008789 12.963568687439 12.963568687439 13.2345323562622 13.4272155761719 13.5214357376099 13.7935495376587 13.7027816772461 13.2876892089844 12.8016996383667 12.6613349914551 13.3013715744019 13.6493349075317 14.1912927627563 15.0199432373047 16.7218112945557 20.3874340057373 24.1176090240479 26.5760803222656 30.1773738861084 32.9024047851563 36.852237701416 40.6650428771973 45.6187782287598 48.8219909667969 50.8900566101074 51.6694984436035 51.9402809143066 52.4940147399902 54.1976165771484 57.0419006347656 58.7176208496094 59.2484588623047 56.9397773742676 53.7913818359375 52.2719116210938 49.4621467590332 48.1926116943359 47.0489692687988 46.5026893615723 46.297924041748 47.6069450378418 48.1461982727051 47.5746650695801 45.9292297363281 46.0967102050781 44.7434272766113 45.3612976074219 46.412914276123 49.5812377929688 51.6268920898438 55.1578674316406 56.0636711120605 56.9141273498535 57.1750640869141 58.5939979553223 59.837085723877 61.0210914611816 61.7816123962402 64.9990158081055 66.4029159545898 67.327018737793 68.4201736450195 68.1628570556641 67.9020690917969 67.8351821899414 72.4265213012695 74.1752624511719 73.787712097168 70.1219253540039 68.6189804077148 68.8032531738281 69.5637512207031 70.1218032836914 68.7063446044922 67.8270034790039 67.1680679321289 69.8424758911133 69.6797790527344 69.1347351074219 68.178092956543 67.1294326782227 68.2892837524414 71.1421661376953 74.9008255004883 74.2384872436523 78.3074417114258 83.8563232421875 86.277229309082 89.56494140625 90.7921829223633 86.7680969238281 82.2398452758789 75.1577453613281 71.3089752197266 70.0346450805664 70.0977783203125 70.4468765258789 70.8884353637695 72.693000793457 78.9399642944336 81.4547576904297 85.7941513061523 87.629753112793 94.4802932739258 97.3798217773438 102.77685546875 103.365173339844 106.174247741699 107.670433044434 107.447166442871 107.372253417969 108.060096740723 107.701026916504 107.701026916504 107.901924133301 108.173377990723 108.917633056641 109.500091552734 110.404853820801 110.404853820801 111.522575378418 112.215667724609 111.518196105957 110.604713439941 110.604713439941 109.453788757324 108.414306640625 106.682090759277 106.682090759277 104.798316955566 102.827850341797 101.289894104004 101.15486907959 101.497505187988 102.266357421875 104.952049255371 104.952049255371 108.636360168457 113.76798248291 113.76798248291 115.481140136719 116.612335205078 117.563179016113 118.876029968262 118.876029968262 119.949821472168 120.368812561035 121.538200378418 120.891502380371 122.050910949707 122.277275085449 122.277275085449 122.841117858887 123.18856048584 125.013893127441 125.013893127441 125.943794250488 125.943794250488 126.585060119629 129.067520141602 128.321029663086 129.430801391602 131.232345581055 132.480545043945 132.480545043945 134.98127746582 136.11701965332 136.11701965332 138.291458129883 139.401672363281 141.470642089844 141.470642089844 142.349624633789 143.807189941406 143.807189941406 143.7890625 144.476989746094 145.958267211914 146.105895996094 147.094482421875 147.094482421875 149.750961303711 149.117431640625
10.7610597610474 11.1811103820801 12.0205764770508 13.3433609008789 12.963568687439 12.963568687439 13.0598831176758 13.4272155761719 13.5214357376099 13.7935495376587 13.7027816772461 13.2876892089844 12.8016996383667 12.6613349914551 13.3013715744019 14.2707452774048 17.2004718780518 21.8599700927734 26.1005954742432 28.2732524871826 31.4589996337891 34.0468330383301 36.7582511901855 40.128547668457 42.5164756774902 44.7069053649902 48.9733543395996 51.2380409240723 52.0882720947266 52.2985572814941 53.0390281677246 55.0123405456543 57.6881904602051 58.4060554504395 57.2962226867676 54.6767120361328 52.4484748840332 50.851490020752 48.2200660705566 47.342212677002 46.8947410583496 47.3931694030762 47.7254638671875 49.1156768798828 49.8665046691895 49.0886650085449 47.9660491943359 48.4004516601563 48.7797813415527 48.5800895690918 49.0776023864746 50.4932136535645 55.3161125183105 57.3709907531738 59.1089057922363 59.5450859069824 59.1812324523926 61.4719047546387 61.8892402648926 62.9159049987793 65.0639038085938 66.6953659057617 68.4129867553711 70.0836563110352 70.5079956054688 70.546142578125 69.3873443603516 69.3782043457031 72.2329940795898 75.4078369140625 73.349006652832 71.0118179321289 69.7437210083008 70.4678649902344 70.9069213867188 71.3454971313477 73.7511367797852 71.8889236450195 71.5051803588867 71.1175842285156 71.0036773681641 73.7013168334961 73.8622817993164 74.3006134033203 75.621223449707 72.2203369140625 75.6447143554688 78.6624069213867 82.071662902832 85.4786682128906 87.3708114624023 90.3094482421875 92.5744552612305 89.8263549804688 80.3283386230469 75.9532012939453 71.6759185791016 69.167236328125 68.3251266479492 68.4055252075195 69.0400085449219 69.7837448120117 72.5042037963867 78.3986434936523 80.3589477539063 87.629753112793 90.8347549438477 92.4080581665039 98.5942611694336 100.317016601563 103.950866699219 103.950866699219 106.120948791504 107.233909606934 107.71932220459 107.222564697266 107.222564697266 107.437980651855 108.173377990723 108.917633056641 108.925392150879 109.714073181152 110.882720947266 112.016395568848 112.016395568848 112.365539550781 111.762512207031 111.081420898438 109.897743225098 108.414306640625 107.732299804688 105.952026367188 104.024208068848 102.192810058594 102.192810058594 101.15486907959 101.497505187988 103.253295898438 103.253295898438 106.121253967285 108.636360168457 111.912620544434 111.912620544434 115.481140136719 117.44287109375 117.44287109375 118.734107971191 118.734107971191 119.138023376465 120.368812561035 120.891502380371 120.891502380371 121.018974304199 121.160057067871 121.160057067871 121.342643737793 123.18856048584 123.934181213379 123.934181213379 124.334465026855 124.334465026855 125.57007598877 126.450294494629 128.321029663086 129.430801391602 129.430801391602 131.970169067383 131.970169067383 133.243942260742 136.11701965332 135.588333129883 138.291458129883 139.401672363281 138.982116699219 140.067199707031 141.809982299805 142.53645324707 142.53645324707 143.7890625 144.476989746094 144.476989746094 146.105895996094 147.094482421875 147.094482421875 149.117431640625 149.117431640625
9.91754627227783 10.7610597610474 11.1811103820801 12.0205764770508 13.7206373214722 13.3433609008789 12.963568687439 12.963568687439 13.2345323562622 13.4272155761719 13.5214357376099 13.7027816772461 13.2876892089844 12.8016996383667 14.6246156692505 18.9065456390381 23.9638748168945 28.8478183746338 30.0982818603516 33.8303604125977 36.2051696777344 38.2052612304688 40.0267906188965 41.6726226806641 41.9040222167969 42.6213340759277 47.6026878356934 51.5366058349609 52.4485168457031 52.4915733337402 53.4767036437988 55.4577522277832 56.461368560791 57.5551643371582 56.1878852844238 53.7088279724121 50.5304985046387 49.663646697998 48.2430992126465 47.6072959899902 47.9605712890625 49.0390434265137 49.2227020263672 50.5661125183105 50.8849143981934 50.4137268066406 50.5848503112793 51.2433624267578 51.6048431396484 52.0858764648438 51.4941291809082 53.533260345459 56.3737297058105 60.7676811218262 61.6104431152344 61.5482368469238 63.1231384277344 63.916202545166 64.6687240600586 65.7653045654297 66.6052398681641 67.9178848266602 70.6852035522461 70.3933029174805 71.1330871582031 71.8872985839844 71.5000305175781 72.080207824707 73.3405532836914 75.9667282104492 74.8945083618164 73.6736145019531 71.9709091186523 71.8370971679688 72.6184768676758 76.3249588012695 76.6835708618164 77.6598205566406 75.2558975219727 76.6897354125977 75.4684982299805 75.5382308959961 76.0814743041992 76.752067565918 79.5952911376953 81.79931640625 84.5103454589844 86.6331176757813 85.5098876953125 88.4280700683594 91.2431259155273 92.4465408325195 93.4843139648438 94.3442001342773 83.3971328735352 77.5337753295898 71.6490097045898 69.9788513183594 67.8041458129883 67.3753356933594 67.5682601928711 68.8257141113281 69.9482727050781 74.4408264160156 77.8051223754883 79.6200637817383 85.8073348999023 89.2368392944336 95.1857681274414 96.3202133178711 100.949768066406 104.167900085449 106.10977935791 106.317588806152 106.442268371582 106.978981018066 107.139320373535 107.551513671875 107.551513671875 108.152984619141 108.813598632813 109.625183105469 110.874809265137 112.148735046387 112.148735046387 112.608123779297 111.762512207031 110.681312561035 110.681312561035 109.346214294434 107.732299804688 106.022453308105 104.127372741699 102.344337463379 102.344337463379 101.243797302246 101.257514953613 102.368095397949 102.368095397949 104.485321044922 109.558471679688 109.558471679688 111.992698669434 115.22274017334 116.23363494873 117.44287109375 117.933387756348 119.138023376465 118.432640075684 119.714942932129 119.834861755371 119.834861755371 119.701049804688 119.615776062012 121.342643737793 121.342643737793 121.968254089355 122.293670654297 122.293670654297 123.167747497559 123.167747497559 125.57007598877 126.450294494629 126.450294494629 128.604965209961 128.604965209961 131.970169067383 133.243942260742 133.243942260742 135.588333129883 135.588333129883 136.69905090332 138.982116699219 138.982116699219 140.067199707031 141.809982299805 142.53645324707 142.53645324707 142.033706665039 143.168411254883 143.168411254883 143.926727294922 145.92431640625 145.92431640625 146.994338989258 146.994338989258
9.19855976104736 9.91754627227783 10.7610597610474 11.4840621948242 12.898380279541 13.7206373214722 13.3433609008789 12.963568687439 12.963568687439 13.2345323562622 13.4272155761719 13.5214357376099 13.7935495376587 17.2468585968018 19.8964138031006 25.499979019165 30.3800868988037 32.7957382202148 33.5697135925293 40.0070762634277 40.6867713928223 41.7704124450684 42.1299247741699 42.1679496765137 41.3548049926758 42.3290786743164 46.987491607666 51.53271484375 52.2177619934082 52.3667945861816 53.4570732116699 54.791748046875 56.4749946594238 56.9720268249512 55.2888069152832 53.0528259277344 50.1712074279785 48.9654235839844 48.379638671875 48.1437377929688 49.2558860778809 49.6180381774902 50.4117279052734 51.2110595703125 51.0509910583496 50.5301208496094 50.6810302734375 53.4893074035645 54.976261138916 54.9136962890625 53.9943351745605 55.0220336914063 60.5016899108887 62.5707588195801 63.3190956115723 64.9901657104492 65.9421157836914 66.7296447753906 67.4175186157227 67.431396484375 68.9971313476563 69.2446823120117 70.6191940307617 71.8290023803711 72.214958190918 72.3735275268555 71.8456802368164 72.6139831542969 73.7081604003906 75.0819625854492 75.054931640625 73.6626510620117 73.049201965332 73.8872909545898 77.0763549804688 79.9153900146484 83.6883087158203 81.669677734375 82.7198028564453 80.6172409057617 80.909065246582 80.5534133911133 80.398078918457 84.6543197631836 85.7070617675781 85.4654312133789 87.0797348022461 89.205436706543 89.0557022094727 90.407356262207 92.9165267944336 93.7628479003906 96.1463088989258 93.7186279296875 90.7487487792969 77.5337753295898 74.942253112793 71.3102188110352 70.0407638549805 67.7288284301758 67.6039047241211 68.1176223754883 70.0829772949219 73.3066558837891 74.7106475830078 78.2976913452148 83.3714065551758 85.2276077270508 88.6405639648438 93.6605224609375 98.5594863891602 102.475250244141 104.957664489746 105.30379486084 106.442268371582 106.992584228516 107.239074707031 107.526649475098 107.966453552246 108.623756408691 108.813598632813 109.625183105469 110.308044433594 111.647003173828 112.590599060059 112.462623596191 111.996887207031 110.805717468262 110.805717468262 109.401000976563 107.796058654785 106.022453308105 104.127372741699 103.082542419434 101.530364990234 100.826202392578 100.826202392578 101.141174316406 102.430908203125 104.485321044922 107.269317626953 109.890419006348 109.890419006348 113.589660644531 116.23363494873 115.481025695801 117.35018157959 118.432640075684 118.432640075684 118.590576171875 118.415504455566 118.415504455566 119.701049804688 119.615776062012 119.696571350098 119.696571350098 119.974739074707 122.293670654297 120.91300201416 123.167747497559 123.762092590332 123.762092590332 125.381042480469 125.381042480469 126.425941467285 129.896118164063 129.896118164063 132.561477661133 132.561477661133 133.770126342773 133.770126342773 136.094802856445 137.267654418945 137.267654418945 139.437271118164 140.301071166992 140.301071166992 141.468246459961 142.033706665039 143.168411254883 143.168411254883 143.926727294922 142.954391479492 145.92431640625 146.994338989258 145.328140258789
7.89454030990601 9.19855976104736 10.4107837677002 10.7610597610474 11.4840621948242 12.898380279541 13.9068765640259 13.3433609008789 13.0816221237183 12.963568687439 13.0598831176758 13.2345323562622 16.0918884277344 20.0496120452881 27.7245998382568 29.8503589630127 34.5437622070313 37.0746955871582 39.3776359558105 42.6116943359375 43.7559928894043 43.9508018493652 42.6950569152832 43.6289405822754 42.3626976013184 43.6344795227051 47.7253379821777 50.9814033508301 50.9367866516113 50.2307434082031 51.8667907714844 54.3750267028809 55.7686042785645 55.9751319885254 53.7008476257324 52.4254264831543 50.505126953125 49.1803321838379 48.8634796142578 49.420093536377 49.6850738525391 51.0193824768066 51.9669036865234 52.1359558105469 51.4255409240723 50.6662788391113 51.8237800598145 53.884822845459 55.5657615661621 56.3022308349609 56.4719200134277 59.7856483459473 62.5497627258301 64.3084182739258 66.3034973144531 67.2287902832031 68.099250793457 69.3663330078125 69.5815048217773 68.1737976074219 68.9743118286133 70.2691268920898 72.3454895019531 72.8038711547852 73.1141586303711 73.4421691894531 72.8557968139648 72.471794128418 73.0292053222656 73.5269012451172 73.0305557250977 73.4852600097656 73.9117126464844 74.6189346313477 76.5692749023438 81.4806518554688 88.0249862670898 88.523307800293 86.0269165039063 85.1139450073242 83.8921203613281 83.3502807617188 84.4501953125 87.446907043457 87.7372055053711 87.2378311157227 86.9319458007813 90.2343826293945 90.6728210449219 91.4860763549805 95.2250747680664 95.92236328125 96.7299270629883 94.8546371459961 89.1403198242188 82.0677108764648 77.2917098999023 75.329833984375 72.4695205688477 69.2106857299805 68.8928451538086 69.5818328857422 70.4246292114258 71.7530746459961 74.5695419311523 78.2976913452148 80.2511825561523 84.1142654418945 90.3665237426758 95.2670516967773 93.9262771606445 98.6331100463867 103.276176452637 104.720092773438 106.179145812988 106.76830291748 107.3359375 107.512870788574 107.966453552246 109.103660583496 109.52677154541 109.52677154541 110.179237365723 111.380882263184 112.25740814209 111.989418029785 111.989418029785 111.440208435059 110.076934814453 108.532859802246 106.816276550293 106.816276550293 104.971893310547 103.082542419434 101.530364990234 100.290489196777 100.100196838379 100.100196838379 100.747009277344 104.711265563965 104.711265563965 107.521186828613 110.312355041504 112.634925842285 115.481025695801 116.107055664063 117.35018157959 117.003639221191 117.263549804688 117.148536682129 116.853553771973 118.415504455566 118.154228210449 117.396675109863 117.294898986816 117.294898986816 119.974739074707 120.91300201416 120.91300201416 121.386810302734 122.681884765625 122.681884765625 123.420623779297 125.381042480469 126.425941467285 128.944076538086 128.944076538086 130.335678100586 132.561477661133 133.770126342773 132.931564331055 136.094802856445 137.267654418945 137.267654418945 139.437271118164 140.301071166992 140.301071166992 141.468246459961 140.07014465332 140.51692199707 140.51692199707 141.945388793945 142.954391479492 142.954391479492 145.328140258789 145.328140258789
7.4440803527832 8.487868309021 9.19855976104736 10.4107837677002 10.7610597610474 11.4840621948242 12.898380279541 13.9068765640259 13.7206373214722 13.0816221237183 12.963568687439 13.8760299682617 18.6717128753662 27.0732421875 29.912878036499 34.9033699035645 37.1750679016113 41.5136680603027 43.0480155944824 43.7751007080078 44.6850433349609 44.7319221496582 44.3817939758301 46.5160484313965 46.2397308349609 47.1660652160645 49.1418113708496 49.840576171875 48.7750244140625 48.6805725097656 50.4910011291504 53.4337310791016 55.055591583252 55.1681632995605 53.5990791320801 51.9196319580078 50.8833923339844 50.063304901123 50.1821784973145 50.6767997741699 51.037036895752 52.4878730773926 53.715160369873 54.0653686523438 53.324634552002 51.9101753234863 52.5994071960449 55.6920623779297 56.4591674804688 57.8524780273438 60.3324699401855 62.6551818847656 65.004997253418 67.6582717895508 68.570198059082 68.5251083374023 69.2411270141602 69.8241958618164 70.3028564453125 70.2959060668945 71.8369979858398 72.926872253418 73.3005752563477 74.3693923950195 75.0153121948242 74.8086624145508 73.1445999145508 71.9004745483398 71.1750869750977 71.0364303588867 70.4564743041992 70.9033126831055 72.9957733154297 74.4006652832031 76.0419921875 79.4585647583008 89.3763427734375 90.3944473266602 88.6130294799805 87.0704345703125 87.7484512329102 86.2848129272461 86.8565444946289 87.6469345092773 87.3544540405273 86.4227294921875 86.4504470825195 87.7681350708008 90.4434204101563 92.0713119506836 96.0381164550781 98.3853988647461 100.078948974609 93.6797103881836 90.9352645874023 87.6152572631836 81.8988342285156 79.0070877075195 77.4162368774414 72.9278793334961 71.6511306762695 71.8264083862305 73.1590042114258 73.9913635253906 74.0585708618164 77.3015594482422 80.2690658569336 82.2759475708008 89.4577255249023 91.4109573364258 95.9838943481445 100.315269470215 102.351013183594 103.448799133301 105.470764160156 107.023643493652 107.82837677002 108.089050292969 108.530799865723 109.197235107422 109.520874023438 109.723731994629 110.479881286621 111.549415588379 111.549415588379 111.801734924316 110.944618225098 110.861145019531 109.356109619141 107.742820739746 106.055335998535 106.055335998535 104.339241027832 102.651176452637 101.188171386719 100.365882873535 99.6808395385742 99.6432189941406 100.747009277344 102.564491271973 102.564491271973 105.439331054688 110.312355041504 113.515403747559 113.515403747559 115.321006774902 115.321006774902 117.003639221191 117.263549804688 117.148536682129 116.853553771973 116.853553771973 115.549125671387 114.876853942871 117.294898986816 117.294898986816 117.965827941895 118.578674316406 118.578674316406 120.223503112793 120.924224853516 122.681884765625 123.420623779297 125.160949707031 125.160949707031 126.387916564941 126.387916564941 130.335678100586 129.230453491211 132.931564331055 132.931564331055 134.145523071289 136.631607055664 136.631607055664 137.716125488281 139.122131347656 139.122131347656 139.56282043457 140.07014465332 140.07014465332 140.51692199707 141.945388793945 141.945388793945 140.47492980957 141.778671264648 141.778671264648
7.15620803833008 7.4440803527832 8.487868309021 9.19855976104736 10.4107837677002 11.1811103820801 11.4840621948242 12.898380279541 13.9068765640259 13.7206373214722 13.3549604415894 15.5779581069946 22.4523029327393 26.571985244751 30.806676864624 36.2473335266113 40.8654441833496 42.8780860900879 43.6457824707031 43.9113464355469 44.8968048095703 45.1414451599121 46.5616874694824 48.2474479675293 49.7394104003906 49.8274345397949 49.5257453918457 48.1221809387207 47.492259979248 46.995849609375 49.419605255127 52.5917053222656 54.5923194885254 54.6403198242188 53.5756072998047 52.029224395752 51.063404083252 51.275333404541 51.7231330871582 51.9056282043457 52.6491966247559 53.9069519042969 54.2013664245605 55.3520698547363 54.7454719543457 55.2066040039063 56.0559043884277 56.7683219909668 61.0026206970215 61.6068305969238 63.1964988708496 65.9722671508789 69.3576889038086 70.242805480957 71.8491287231445 70.9227981567383 71.5181579589844 72.2415237426758 72.6141891479492 73.2397766113281 73.8938293457031 74.2546463012695 75.200325012207 75.0274887084961 75.5201034545898 75.2475891113281 74.0281753540039 71.8410186767578 71.0779800415039 70.6625900268555 69.8389892578125 69.884521484375 71.0158920288086 75.0500793457031 76.6675872802734 82.9963302612305 87.945915222168 91.3105697631836 91.5837478637695 90.6748428344727 87.5185852050781 86.1383743286133 86.1356506347656 86.8368911743164 85.9304885864258 84.642951965332 83.9926300048828 85.9781188964844 89.1494979858398 91.4528198242188 93.52099609375 99.7188339233398 101.910972595215 98.4031677246094 91.5296859741211 87.7498168945313 84.9475173950195 84.0176620483398 81.5777969360352 76.75390625 75.7950134277344 75.9023742675781 76.3921661376953 77.3783645629883 75.9639511108398 77.4348373413086 79.2754821777344 83.4457168579102 87.8088150024414 91.4109573364258 95.3978500366211 99.4267196655273 99.4267196655273 102.77156829834 105.282562255859 107.023643493652 108.30770111084 108.30770111084 108.667182922363 109.197235107422 109.540901184082 108.850006103516 108.723808288574 110.163543701172 110.163543701172 109.929023742676 108.929328918457 109.505828857422 107.890129089355 107.890129089355 106.245079040527 104.628852844238 103.063354492188 101.570777893066 101.570777893066 100.365882873535 99.6808395385742 99.0973587036133 100.654640197754 100.654640197754 103.040687561035 105.439331054688 108.912757873535 112.420997619629 112.420997619629 115.321006774902 115.841041564941 115.841041564941 115.918312072754 115.645385742188 114.199829101563 114.199829101563 113.156677246094 114.876853942871 114.199890136719 114.199890136719 114.592651367188 116.812049865723 116.812049865723 120.223503112793 120.924224853516 120.924224853516 122.176635742188 122.8720703125 122.8720703125 126.387916564941 124.976661682129 129.230453491211 129.230453491211 130.61767578125 133.301864624023 133.301864624023 134.61506652832 136.631607055664 137.716125488281 137.306350708008 139.122131347656 139.56282043457 137.199890136719 137.199890136719 137.557250976563 138.227401733398 138.227401733398 140.47492980957 141.778671264648 141.778671264648
7.08499193191528 7.15620803833008 7.4440803527832 8.487868309021 9.91754627227783 10.4107837677002 11.1811103820801 11.4840621948242 12.898380279541 14.1248331069946 15.7546491622925 18.9732131958008 25.2481937408447 28.4882068634033 33.0114707946777 39.1460075378418 41.2834815979004 42.7171745300293 43.5497131347656 44.1365013122559 45.3092002868652 46.5279350280762 48.5586204528809 50.2234001159668 51.3735008239746 50.3650016784668 48.2796745300293 46.3620491027832 46.074535369873 46.7121925354004 49.351001739502 52.0487632751465 54.6466789245605 54.8774528503418 53.4674034118652 52.2807769775391 51.6764526367188 51.8760070800781 52.6085472106934 53.5111236572266 54.5984191894531 54.7977714538574 55.596248626709 56.8266143798828 57.4780158996582 59.7726554870605 62.003475189209 62.7077369689941 67.3014526367188 67.4225387573242 69.5330123901367 71.3397750854492 73.1348190307617 73.7563552856445 72.3998489379883 74.159423828125 74.3393630981445 74.5929336547852 75.3744430541992 75.7354431152344 75.4363021850586 75.6819229125977 75.6581192016602 75.3838119506836 75.6932754516602 75.546875 74.6182327270508 72.8572769165039 72.0642623901367 70.6872253417969 71.3940124511719 70.9607467651367 71.7148971557617 75.580207824707 78.9468688964844 84.3496322631836 88.3549499511719 92.5438003540039 92.3962707519531 91.647705078125 89.1149063110352 86.8601913452148 84.4209823608398 84.653190612793 84.5601806640625 83.7021102905273 83.3780746459961 84.5553588867188 87.2831726074219 88.805305480957 94.7226638793945 97.5771484375 102.765991210938 100.798072814941 94.4140930175781 89.3243408203125 88.1667709350586 87.5243911743164 86.6753845214844 83.8627243041992 80.3433456420898 80.2754287719727 81.2014770507813 81.3553237915039 80.226203918457 80.226203918457 83.5071105957031 85.3611068725586 88.4744873046875 91.1635513305664 93.0928268432617 97.1585006713867 100.785224914551 103.854644775391 106.246276855469 106.246276855469 108.772911071777 108.772911071777 109.845085144043 109.802833557129 109.540901184082 108.673072814941 107.549438476563 108.238922119141 108.998809814453 108.101409912109 108.929328918457 107.479858398438 107.479858398438 105.841064453125 104.301597595215 103.017433166504 101.962028503418 100.969795227051 100.969795227051 100.048698425293 99.3471450805664 99.0973587036133 99.9196472167969 99.9196472167969 102.341270446777 106.408973693848 106.408973693848 110.140930175781 113.140586853027 114.239532470703 114.807121276855 114.807121276855 114.624488830566 113.25122833252 112.10066986084 113.156677246094 113.156677246094 110.792747497559 110.217567443848 110.217567443848 111.48754119873 116.812049865723 116.812049865723 117.983070373535 119.963371276855 119.963371276855 120.477043151855 122.8720703125 121.284446716309 124.976661682129 124.976661682129 126.427589416504 130.61767578125 129.348083496094 130.818298339844 133.301864624023 134.61506652832 134.61506652832 136.76416015625 137.306350708008 137.306350708008 137.258071899414 137.199890136719 137.199890136719 137.557250976563 138.227401733398 138.227401733398 136.007965087891 138.983139038086 138.983139038086
7.08499193191528 7.08499193191528 7.15620803833008 7.89454030990601 8.487868309021 9.91754627227783 10.4107837677002 11.1811103820801 11.8365297317505 15.8184509277344 21.2772388458252 25.0311717987061 29.3504886627197 33.5839881896973 36.7072868347168 40.2282600402832 41.0967597961426 42.2584190368652 43.0669097900391 44.2223091125488 46.1201591491699 47.9445381164551 50.1580657958984 51.448169708252 51.9744300842285 50.0273857116699 46.9778594970703 46.1911926269531 45.8104057312012 47.205135345459 50.5540046691895 52.4157981872559 54.0287590026855 54.7044563293457 53.7369995117188 52.8440551757813 52.5304527282715 53.2438316345215 54.4640960693359 55.7319221496582 55.6398811340332 56.6685028076172 56.7741508483887 58.6397132873535 60.6831321716309 65.5029373168945 69.1216812133789 69.8871231079102 73.661262512207 73.64453125 74.2063674926758 75.6854858398438 76.3289566040039 75.136833190918 75.8021774291992 77.314697265625 77.3589401245117 76.5104598999023 77.8899002075195 77.4131088256836 77.2891311645508 75.9887466430664 75.5161743164063 75.2367324829102 75.3940124511719 75.5261840820313 73.9648056030273 73.5013580322266 73.204216003418 73.294563293457 72.6737747192383 74.4909133911133 77.1341247558594 78.8408584594727 85.0194702148438 87.6478042602539 90.7133560180664 93.0544204711914 92.6211318969727 90.580810546875 88.8845901489258 86.6734924316406 83.6175918579102 84.0133285522461 84.5917510986328 84.4950256347656 83.575813293457 84.0219955444336 84.5431823730469 89.9598083496094 92.9214401245117 99.2638168334961 102.803382873535 100.260383605957 95.7449645996094 89.6812362670898 89.5554122924805 90.6404190063477 89.7310180664063 88.6570816040039 85.2479476928711 85.4790878295898 85.9153366088867 86.2010879516602 82.6162185668945 86.2168960571289 86.6819839477539 87.3282089233398 88.6737670898438 89.8759841918945 93.3838882446289 95.8788833618164 99.401123046875 102.788719177246 105.788459777832 106.633934020996 108.361701965332 109.26293182373 109.845085144043 109.334754943848 107.331726074219 107.331726074219 105.150703430176 105.542610168457 106.02596282959 104.760009765625 106.819877624512 106.819877624512 105.281074523926 103.750274658203 104.301597595215 103.017433166504 101.626495361328 100.948875427246 100.269996643066 99.6396102905273 99.2206497192383 99.2206497192383 99.4661636352539 101.130073547363 102.341270446777 105.965919494629 105.965919494629 109.783729553223 112.473541259766 113.821342468262 113.868896484375 113.868896484375 114.624488830566 113.25122833252 112.10066986084 108.735939025879 108.735939025879 107.044281005859 110.217567443848 105.538185119629 111.48754119873 113.094093322754 113.094093322754 116.971702575684 118.251258850098 119.963371276855 120.477043151855 121.284446716309 121.284446716309 122.162071228027 124.828315734863 124.828315734863 126.361572265625 129.348083496094 130.818298339844 130.818298339844 133.807205200195 133.807205200195 134.87174987793 137.306350708008 135.344192504883 134.855209350586 134.855209350586 133.516052246094 133.426635742188 133.426635742188 134.769454956055 136.007965087891 136.007965087891 138.983139038086
7.08499193191528 7.08499193191528 7.08499193191528 7.15620803833008 7.89454030990601 8.487868309021 9.91754627227783 10.5950231552124 12.4546661376953 20.2619094848633 25.3077526092529 28.4442749023438 33.7088050842285 35.9138984680176 38.6984481811523 39.941333770752 40.3105888366699 41.5343933105469 42.4485359191895 44.2894287109375 47.1677398681641 49.3764953613281 51.7834663391113 52.6240844726563 52.6134071350098 50.2656135559082 49.1367378234863 46.3739013671875 47.1335144042969 47.8455009460449 51.3671913146973 52.4941062927246 54.2493095397949 54.4552001953125 53.8814888000488 53.6586494445801 54.0088310241699 55.6985473632813 55.8118171691895 57.5191345214844 58.2110290527344 58.3071136474609 58.9615058898926 59.9130401611328 66.5465927124023 67.4721145629883 73.9763641357422 75.7068099975586 78.502685546875 78.1360092163086 78.7128067016602 79.0769577026367 77.8296737670898 78.3390808105469 79.4598007202148 80.0008239746094 79.1742172241211 79.4963531494141 79.0803298950195 79.1238327026367 77.1039810180664 75.1895217895508 74.8117599487305 74.257682800293 74.3382797241211 74.4502334594727 74.1396331787109 74.2558975219727 74.9192810058594 75.9126510620117 75.6990203857422 75.928825378418 77.0800476074219 83.8768997192383 85.5993118286133 87.714241027832 92.6766586303711 93.1740951538086 90.2376174926758 89.3992233276367 88.5745468139648 85.7039566040039 84.251579284668 84.5214462280273 85.6945495605469 84.9510269165039 84.6728134155273 84.1568374633789 84.125373840332 85.8883666992188 91.1937942504883 97.950927734375 100.951103210449 101.90860748291 97.3892288208008 90.6801452636719 90.795654296875 91.5931777954102 93.9250411987305 91.2290573120117 89.5098342895508 89.8088912963867 91.0617370605469 91.3097152709961 86.8947219848633 88.560417175293 88.574333190918 88.5876998901367 90.7881546020508 90.4825973510742 92.2362594604492 93.3330307006836 95.3647689819336 98.8046035766602 103.758811950684 106.633934020996 107.92236328125 109.262016296387 109.936851501465 109.50008392334 107.805015563965 105.109924316406 105.150703430176 102.703300476074 103.614768981934 103.614768981934 102.37109375 103.603034973145 102.265235900879 100.950836181641 102.500427246094 102.500427246094 99.9890365600586 100.183959960938 100.324890136719 100.340278625488 100.324195861816 100.324195861816 100.826667785645 102.564918518066 104.296852111816 104.296852111816 108.112510681152 111.396759033203 112.473541259766 113.174682617188 113.868896484375 113.868896484375 112.729927062988 111.629600524902 108.033149719238 108.033149719238 105.711585998535 101.477821350098 105.538185119629 106.415397644043 106.415397644043 111.301597595215 111.301597595215 116.971702575684 118.251258850098 119.189018249512 119.189018249512 119.300987243652 119.300987243652 120.403869628906 121.619178771973 124.828315734863 126.361572265625 126.361572265625 129.682205200195 129.682205200195 131.35791015625 133.807205200195 134.87174987793 135.344192504883 135.344192504883 134.855209350586 134.855209350586 133.516052246094 133.426635742188 133.426635742188 134.769454956055 132.546203613281 132.546203613281 134.217636108398
7.08499193191528 7.08499193191528 7.08499193191528 7.08499193191528 7.15620803833008 7.89454030990601 8.86819458007813 10.5828714370728 15.0923919677734 22.5094699859619 27.4030151367188 30.4988842010498 34.7075614929199 36.1490745544434 36.4412231445313 37.044994354248 40.0934982299805 41.1854553222656 42.3477630615234 45.9842834472656 48.6836280822754 51.0818672180176 53.6701507568359 54.5275993347168 53.4163513183594 51.2036094665527 50.2439155578613 47.9142875671387 48.0037422180176 49.7797698974609 52.4745483398438 53.3241844177246 54.280689239502 54.6346321105957 54.8130226135254 55.1312370300293 57.1073799133301 60.4879455566406 60.8228874206543 63.59716796875 63.8150367736816 65.5252151489258 68.5353317260742 67.2008895874023 71.9860458374023 75.7091293334961 80.2654342651367 80.9021224975586 80.0488967895508 82.0778732299805 82.3937301635742 82.7707748413086 81.101921081543 82.1044235229492 82.2030639648438 81.306999206543 79.6532363891602 79.1496124267578 78.6630477905273 77.7074813842773 75.9041519165039 71.2297058105469 72.6758422851563 71.5269546508789 71.3988876342773 71.8905029296875 72.8720016479492 73.7635269165039 74.3003005981445 76.7818984985352 77.9464492797852 78.7398376464844 79.9453659057617 84.3686828613281 86.436279296875 88.2726364135742 91.0083923339844 91.4801712036133 89.3908004760742 88.8869094848633 87.1728744506836 86.9052124023438 86.0835647583008 86.3943481445313 86.6794738769531 86.6042251586914 85.3719787597656 85.0166931152344 84.1216430664063 84.7180404663086 91.3653182983398 94.6345596313477 100.435508728027 99.5124816894531 95.3396911621094 93.0894546508789 91.1946792602539 93.174674987793 94.7060928344727 95.1628646850586 93.0526351928711 94.1015625 94.9181594848633 95.8493347167969 91.6071548461914 93.8469619750977 93.4111633300781 92.213493347168 93.0683822631836 91.1954727172852 92.4059371948242 93.3330307006836 96.4859848022461 99.9204025268555 102.407409667969 105.702606201172 106.437805175781 108.332649230957 109.46671295166 108.613121032715 106.518676757813 103.274406433105 102.652961730957 102.703300476074 99.9421310424805 100.370262145996 102.37109375 101.247184753418 100.025787353516 100.950836181641 100.121589660645 100.121589660645 99.9890365600586 100.183959960938 100.324890136719 100.340278625488 101.1513671875 101.561408996582 102.714996337891 102.564918518066 105.591529846191 105.591529846191 109.025016784668 111.396759033203 112.925842285156 112.925842285156 112.670867919922 112.670867919922 111.714538574219 108.339576721191 105.893699645996 105.711585998535 105.711585998535 101.477821350098 100.546905517578 103.271110534668 103.271110534668 106.550750732422 114.008171081543 114.008171081543 117.514038085938 117.938110351563 117.938110351563 117.568840026855 117.568840026855 120.403869628906 121.619178771973 121.619178771973 124.675407409668 124.675407409668 126.525840759277 129.682205200195 131.35791015625 133.585678100586 133.585678100586 133.515930175781 133.515930175781 131.258529663086 131.258529663086 129.9775390625 129.132064819336 129.132064819336 129.804718017578 132.546203613281 132.546203613281 134.217636108398
7.08499193191528 7.08499193191528 7.08499193191528 7.08499193191528 7.08499193191528 7.75618886947632 9.72889709472656 11.7722959518433 18.5858020782471 24.1798114776611 28.6729640960693 31.2599334716797 34.6579170227051 35.2540588378906 34.5841255187988 35.5578804016113 37.6422119140625 41.0990333557129 45.8740539550781 47.8781127929688 50.6730041503906 54.5374145507813 55.5971984863281 55.7819519042969 54.7001838684082 52.4699821472168 50.5658569335938 50.7864952087402 50.5286445617676 52.5066566467285 53.1635322570801 54.1777458190918 54.8025207519531 55.2062835693359 56.5592460632324 57.9991035461426 61.7525215148926 62.5364189147949 68.3597412109375 72.401985168457 72.6958312988281 74.9766006469727 74.8895492553711 77.1344223022461 80.1984481811523 82.2326583862305 85.2580795288086 85.5236434936523 84.4922103881836 85.9543838500977 85.614501953125 86.0376586914063 84.7034606933594 84.6338348388672 82.4717330932617 79.8329391479492 77.6865310668945 75.9005966186523 73.9780578613281 73.295051574707 69.8554229736328 70.644172668457 69.3541870117188 68.9306793212891 67.1766052246094 69.0139083862305 68.3905029296875 70.1720199584961 72.5615463256836 75.1639785766602 77.8718490600586 79.7692718505859 83.0713119506836 84.7127075195313 86.3719711303711 87.2969436645508 88.8841934204102 86.7640151977539 85.3091735839844 85.6960678100586 86.3161849975586 86.4320297241211 85.9795150756836 86.1432800292969 86.4942932128906 85.8223342895508 85.2916488647461 84.9062728881836 84.3344345092773 84.2216415405273 86.45849609375 94.0877380371094 95.1650161743164 96.453369140625 95.0443115234375 91.8127365112305 91.9436416625977 93.1261215209961 95.3508605957031 95.9760208129883 96.8623962402344 96.6735458374023 98.0599594116211 100.242980957031 100.470764160156 100.470764160156 100.988899230957 99.4390563964844 96.5808944702148 93.6826705932617 93.804328918457 93.7095565795898 96.4407348632813 99.4296875 99.4296875 103.505729675293 105.45482635498 107.481658935547 108.733764648438 108.613121032715 106.518676757813 103.274406433105 100.932518005371 98.2471923828125 99.9421310424805 98.2903060913086 99.1458969116211 98.2417373657227 97.2898483276367 97.2898483276367 99.1233215332031 99.0011367797852 99.5596618652344 100.259773254395 100.259773254395 100.804260253906 101.1513671875 104.10701751709 105.322998046875 105.070777893066 105.070777893066 108.173095703125 109.025016784668 111.720878601074 112.787391662598 112.787391662598 112.436668395996 111.714538574219 109.27091217041 108.339576721191 105.893699645996 100.26342010498 100.26342010498 97.7213134765625 96.2588500976563 98.105842590332 103.271110534668 106.550750732422 113.556312561035 113.556312561035 115.782615661621 117.938110351563 116.629127502441 117.568840026855 117.794075012207 117.794075012207 119.729057312012 119.729057312012 121.252014160156 126.525840759277 126.525840759277 127.524208068848 130.38835144043 131.551574707031 131.551574707031 130.917861938477 130.917861938477 129.149459838867 131.258529663086 129.9775390625 124.652015686035 129.132064819336 129.804718017578 127.332511901855 127.332511901855 130.870590209961
7.09503507614136 7.09503507614136 7.09503507614136 7.09503507614136 7.13425302505493 7.53929853439331 9.50792694091797 12.5247373580933 19.4529209136963 24.2951030731201 28.9515838623047 30.6192169189453 32.4187278747559 34.1355476379395 33.6717376708984 34.1738548278809 37.9142799377441 41.5062446594238 45.8117980957031 50.1388740539551 52.6473388671875 56.0359153747559 57.1720924377441 56.94677734375 55.8735847473145 54.1155090332031 52.8544158935547 54.3602294921875 54.1581726074219 55.1581535339355 54.8544006347656 55.2582588195801 55.6190795898438 56.8667297363281 59.1697196960449 61.3114013671875 62.5766410827637 67.0963516235352 74.3747024536133 79.2175216674805 78.8495025634766 82.4119338989258 82.9245071411133 83.4365844726563 86.1175918579102 87.0137100219727 88.7007064819336 88.8268051147461 88.2350082397461 87.2037582397461 89.0105972290039 89.0062026977539 87.7684936523438 85.6689682006836 81.8944854736328 73.4158325195313 71.1516647338867 69.6776428222656 68.2877197265625 70.6450576782227 69.131462097168 66.5051574707031 66.7338638305664 65.7300338745117 64.6792221069336 64.0446472167969 62.2092475891113 66.4179382324219 69.4734497070313 69.6798095703125 76.8193130493164 79.6872940063477 83.1567993164063 85.6128234863281 86.0726928710938 85.2755813598633 84.7090148925781 82.0801620483398 81.6436309814453 82.3548965454102 84.2927627563477 84.9396591186523 85.2630233764648 85.3005752563477 85.1455917358398 85.1160278320313 84.9606628417969 84.9130172729492 84.6236877441406 84.5168685913086 85.2916259765625 90.2217712402344 91.760139465332 93.9189224243164 92.2508239746094 91.2694702148438 90.4027633666992 93.4254150390625 94.6171646118164 96.3539047241211 97.4785385131836 98.6089477539063 99.1787643432617 100.693176269531 101.697807312012 102.899909973145 102.354209899902 100.020439147949 96.7878494262695 97.9385070800781 96.484130859375 98.6513595581055 97.9580612182617 98.2686538696289 101.05347442627 103.856407165527 106.08837890625 107.678062438965 108.316932678223 105.901847839355 105.901847839355 102.993324279785 99.4386520385742 98.2471923828125 97.8686752319336 96.2430953979492 97.3723831176758 97.3723831176758 96.5238418579102 95.8961181640625 96.8045425415039 97.4569931030273 99.3740234375 100.752006530762 102.286407470703 102.286407470703 103.328758239746 104.10701751709 105.322998046875 107.288291931152 107.288291931152 109.668907165527 111.020355224609 112.659210205078 112.659210205078 112.787391662598 111.846534729004 109.27091217041 109.27091217041 106.996276855469 101.250968933105 101.250968933105 97.9422607421875 93.0722579956055 96.2588500976563 98.105842590332 98.105842590332 105.94930267334 110.24828338623 110.24828338623 115.200645446777 116.629127502441 116.629127502441 116.147888183594 115.938026428223 115.938026428223 116.657684326172 119.729057312012 121.252014160156 125.337379455566 125.337379455566 127.524208068848 127.524208068848 130.005599975586 130.005599975586 129.441635131836 130.917861938477 129.149459838867 129.149459838867 125.408073425293 124.652015686035 124.652015686035 125.829551696777 125.829551696777 127.332511901855 130.870590209961
7.32835531234741 7.32835531234741 7.32835531234741 7.32835531234741 7.32835531234741 7.7284369468689 9.02042102813721 11.7836256027222 19.557804107666 23.4098377227783 26.6863994598389 28.6350860595703 31.6050338745117 31.6015377044678 31.5749111175537 33.1755981445313 38.1015625 43.326000213623 47.9846305847168 51.2387580871582 53.9492034912109 56.6630821228027 57.8739776611328 57.7472839355469 57.167407989502 56.2898368835449 56.1748924255371 57.4592247009277 57.1645202636719 57.2868232727051 56.3541450500488 56.4581451416016 57.3567390441895 59.0954399108887 60.4520225524902 62.0707740783691 65.3288192749023 69.1726455688477 74.8293075561523 81.4569549560547 83.2413558959961 84.6524887084961 86.4697494506836 86.976806640625 88.7794418334961 89.4524765014648 90.2782516479492 90.540168762207 90.3356323242188 90.0125350952148 89.7644424438477 90.0449905395508 89.756462097168 85.6100082397461 77.6072616577148 68.7262344360352 66.3957138061523 65.5617446899414 64.676887512207 65.1575088500977 64.4724273681641 64.5294189453125 65.8471755981445 65.264274597168 63.182430267334 61.6895141601563 59.9333686828613 61.402271270752 63.5251579284668 68.4140853881836 72.5103225708008 78.3656234741211 83.5068435668945 85.9748229980469 85.9391555786133 83.9192276000977 81.4923782348633 80.1462936401367 80.6284103393555 81.2899627685547 82.0868835449219 83.8183822631836 84.4116134643555 84.8689575195313 84.7226181030273 84.9863052368164 85.0329284667969 85.388053894043 85.3973388671875 84.7654800415039 85.9249649047852 87.8850402832031 90.0784683227539 90.5271987915039 87.8967895507813 87.6536483764648 87.210075378418 91.3386840820313 93.8583755493164 96.7392959594727 97.3627014160156 98.7260971069336 98.7387924194336 100.995971679688 102.771118164063 104.291877746582 104.779815673828 105.072792053223 103.469367980957 101.11353302002 98.8629150390625 98.6513595581055 100.319366455078 99.8852844238281 101.820091247559 103.733093261719 105.382133483887 106.662544250488 107.099792480469 106.136352539063 104.042533874512 100.564002990723 99.4386520385742 97.008056640625 96.2495956420898 96.2430953979492 95.0617370605469 95.3354415893555 94.6131362915039 95.8961181640625 96.2586669921875 98.2592544555664 98.2592544555664 100.490547180176 102.299263000488 103.999816894531 105.047187805176 105.047187805176 105.980278015137 107.390419006348 109.304840087891 109.668907165527 111.743591308594 112.822807312012 112.822807312012 112.446105957031 110.183715820313 108.416481018066 108.416481018066 103.353515625 100.054100036621 97.9422607421875 97.9422607421875 93.0722579956055 92.5407104492188 97.0719909667969 97.0719909667969 101.635795593262 110.24828338623 110.517189025879 115.200645446777 115.623085021973 115.623085021973 114.289253234863 113.854148864746 115.938026428223 116.657684326172 119.712646484375 119.712646484375 121.947578430176 121.947578430176 126.575691223145 126.575691223145 127.893859863281 130.005599975586 129.441635131836 129.441635131836 125.018188476563 125.018188476563 122.557800292969 120.525573730469 120.525573730469 121.030448913574 121.030448913574 123.770408630371 125.637054443359
